ply
format ascii 1.0
element vertex 1024
property float x
property float y
property float z
end_header
0.002684 -0.218139 0.551250
-0.149958 0.203868 0.515000
0.249711 0.108094 0.493500
-0.163988 -0.005886 0.799250
0.135946 -0.070487 0.783250
0.249814 -0.156756 0.522750
0.038783 0.084300 0.618000
-0.093936 -0.062318 0.623750
-0.203304 0.111466 0.664250
0.197415 0.020621 0.638500
0.122648 -0.129316 0.628750
0.008869 0.180206 0.490000
-0.010040 -0.010530 0.753500
-0.085753 0.126991 0.602500
0.123132 0.125286 0.524500
0.013768 -0.123772 0.697000
-0.104940 0.041624 0.689250
0.143340 -0.099576 0.513000
0.156613 -0.221799 0.560500
0.093142 0.008673 0.695750
0.042780 -0.117878 0.551000
0.004248 -0.029550 0.651250
-0.235603 0.057012 0.757500
0.197916 -0.075620 0.598500
0.194730 0.077797 0.563500
-0.173674 0.156466 0.589750
-0.014749 0.052534 0.683000
-0.030921 -0.123815 0.602000
0.123682 0.061357 0.613250
-0.007488 0.133315 0.562000
0.049984 -0.057200 0.796500
-0.070046 0.175752 0.522500
-0.092512 -0.022731 0.745250
0.079991 -0.191070 0.562750
0.170291 -0.019186 0.705500
-0.161677 0.042257 0.740250
0.036222 -0.144441 0.626750
-0.132333 -0.029632 0.677750
-0.130791 0.099904 0.653250
0.177451 -0.164166 0.513500
-0.030306 -0.064450 0.703250
0.061974 0.117055 0.559750
0.211680 -0.095688 0.529000
0.051796 -0.229044 0.614750
0.184105 0.132565 0.490500
-0.029234 0.095307 0.630000
0.075323 0.161581 0.490000
0.135383 -0.149752 0.564750
0.091783 -0.031572 0.750500
-0.053778 -0.001663 0.691000
-0.053983 -0.037386 0.795000
0.027710 -0.058477 0.730250
0.047427 0.044740 0.667750
-0.119423 0.163234 0.559500
0.138853 -0.089115 0.583250
-0.033487 -0.063218 0.612500
0.034299 0.010116 0.716500
0.139501 0.024560 0.659250
0.009460 -0.162042 0.575250
0.214304 -0.209334 0.529000
0.191625 -0.194956 0.600500
-0.202823 0.076023 0.712750
-0.014039 -0.070361 0.767750
-0.075552 0.083675 0.661500
-0.001129 -0.102973 0.646000
-0.106718 -0.006746 0.632250
0.139489 0.091278 0.566250
-0.220483 0.021817 0.798000
0.115439 -0.163632 0.671500
0.078670 -0.129258 0.595000
-0.148772 0.073192 0.697000
0.032978 0.147235 0.525500
-0.059007 -0.044126 0.660000
-0.146836 -0.007890 0.739500
-0.104170 0.027587 0.740500
0.173834 0.053466 0.604250
-0.057835 0.145776 0.563500
0.112012 -0.173422 0.605000
-0.135801 0.130111 0.612500
0.142525 -0.038637 0.743250
0.083485 0.086953 0.594250
0.208879 0.102260 0.522000
0.054178 -0.147823 0.713000
0.094579 0.043567 0.650250
-0.021756 0.162712 0.525000
-0.038135 0.192352 0.490000
-0.004636 -0.003947 0.691000
0.044808 -0.020499 0.753750
0.171090 -0.079129 0.547500
-0.047284 -0.028375 0.732000
-0.180856 0.131380 0.628250
-0.061305 0.040658 0.673250
-0.112198 0.001988 0.779250
-0.098719 -0.004009 0.701750
-0.104920 0.199217 0.503250
0.249861 -0.197820 0.502000
0.002915 0.105422 0.598750
-0.021252 -0.167868 0.610250
-0.163470 0.180202 0.552000
-0.066226 -0.098111 0.615500
0.022487 -0.057973 0.681750
0.006365 0.072274 0.647500
0.093867 -0.068028 0.800000
0.173682 -0.173092 0.558750
0.164978 0.108360 0.530750
0.137225 -0.144412 0.518750
0.182685 -0.120436 0.504500
-0.009334 -0.038931 0.799750
0.039836 -0.207312 0.574250
0.113155 -0.218436 0.552000
-0.138699 0.013215 0.692750
-0.039402 0.120443 0.594750
0.051999 -0.138856 0.669750
0.085578 -0.163168 0.639250
-0.181211 0.027654 0.776750
0.080664 0.135752 0.524750
0.128605 -0.009975 0.713750
0.215440 0.050447 0.592250
0.051297 -0.158081 0.564500
0.149084 -0.193583 0.593250
0.141921 0.143914 0.490500
0.011788 -0.124707 0.596750
0.175477 0.006154 0.671750
0.102204 0.107276 0.557000
0.216358 -0.173363 0.503250
-0.013230 -0.067386 0.663500
0.119385 -0.112415 0.555500
0.078337 -0.102064 0.564250
0.231603 0.077945 0.545000
0.070800 -0.005349 0.726250
-0.113687 -0.063332 0.667000
-0.095743 0.106683 0.635750
0.218955 -0.132882 0.517250
-0.012042 0.016204 0.724000
0.072444 0.065762 0.626250
-0.166652 0.097147 0.671500
-0.093248 -0.028217 0.670750
-0.028809 0.018276 0.668500
-0.199344 0.052290 0.743750
0.003017 -0.074208 0.619750
0.024062 -0.076730 0.768000
-0.037429 0.077466 0.664500
-0.128809 0.049482 0.720750
-0.113612 0.078120 0.679750
-0.018020 -0.188457 0.571750
0.018254 0.034941 0.692250
-0.063454 -0.040313 0.618250
-0.006078 -0.036578 0.726750
0.038779 0.105293 0.587000
0.116845 -0.185996 0.570000
-0.102694 0.011626 0.667250
0.030164 -0.028412 0.703000
-0.088527 -0.026588 0.786500
0.121354 -0.129585 0.592000
0.162980 -0.077889 0.608500
0.163712 0.036235 0.634750
0.059492 0.021221 0.692500
0.106790 0.146921 0.500750
0.027535 0.128216 0.556000
-0.080536 0.039662 0.715500
0.019490 -0.131819 0.656750
-0.061782 0.107460 0.622000
-0.123820 0.185544 0.530750
0.085688 -0.162159 0.582500
0.041012 0.166186 0.496500
0.218066 0.123586 0.490250
-0.062046 -0.036077 0.694000
-0.091979 0.146340 0.573000
0.069280 -0.224174 0.566500
-0.228371 0.085597 0.734250
0.108668 -0.051714 0.773500
-0.140227 0.151209 0.584500
-0.040652 -0.023386 0.766750
-0.149125 0.020880 0.763750
0.031165 -0.147446 0.539250
0.144290 0.004024 0.687250
0.044851 -0.126275 0.590250
0.075845 -0.045586 0.778000
-0.019936 -0.091827 0.601000
0.182028 -0.222804 0.582500
-0.246438 0.039572 0.784000
0.147665 0.070911 0.591500
-0.006864 -0.036754 0.685250
0.175840 -0.089969 0.516250
-0.064531 -0.067849 0.599750
-0.070702 0.196644 0.496750
0.020999 -0.007151 0.670250
0.115721 0.082186 0.588250
0.204276 -0.079510 0.556500
-0.211748 0.037642 0.771000
0.108695 0.022780 0.671000
-0.080678 0.063013 0.686500
-0.088669 0.164935 0.546750
0.019127 -0.061196 0.644500
-0.108280 -0.037588 0.641500
-0.172899 0.063332 0.715750
0.042528 0.065472 0.643750
-0.153996 0.116459 0.637500
-0.215153 0.096647 0.691750
-0.078464 0.017647 0.687000
-0.038449 -0.062285 0.644750
0.124550 0.042780 0.638500
-0.127989 -0.002661 0.655500
0.173273 -0.079854 0.579000
0.240015 0.095039 0.520250
-0.077255 -0.019526 0.718000
0.003491 0.147313 0.535250
0.193068 -0.184591 0.530750
0.142611 -0.090061 0.542500
0.100655 -0.016122 0.725000
-0.013321 -0.067968 0.728500
0.156932 -0.159918 0.536250
0.122556 -0.118558 0.525750
-0.113824 0.137728 0.593000
0.168078 0.089545 0.555500
0.066499 -0.129677 0.566750
0.018768 0.054835 0.669750
-0.048944 0.160368 0.537500
0.160190 0.126195 0.507250
-0.034432 -0.006461 0.716500
0.197964 0.039109 0.614000
-0.000058 0.089244 0.624000
0.121639 -0.138384 0.657000
0.075289 0.032711 0.670000
-0.012727 0.025929 0.696000
0.153627 -0.125709 0.502250
0.031789 -0.180094 0.566250
-0.180335 0.084376 0.694250
-0.010899 -0.144249 0.596000
0.079710 -0.156839 0.610500
0.138061 0.108019 0.542250
-0.067835 -0.029412 0.758750
-0.006410 -0.036046 0.766500
0.028888 -0.015017 0.729500
0.009245 -0.120282 0.625000
-0.094177 0.003066 0.729500
-0.008518 -0.052246 0.639250
0.059199 0.150148 0.511750
0.037315 -0.037945 0.779500
0.196772 -0.145376 0.504250
0.010955 0.161988 0.511750
-0.054381 0.091040 0.644000
0.221844 0.065335 0.568500
0.006608 -0.110490 0.672250
-0.043319 0.176796 0.513000
0.054964 0.133472 0.536500
0.149877 -0.172998 0.573750
-0.193190 0.015256 0.799750
-0.016635 0.177805 0.501500
0.173797 0.070582 0.580750
0.027382 -0.138440 0.572000
-0.162154 0.139374 0.608750
-0.178585 0.113415 0.650250
-0.031162 0.145867 0.553250
0.185582 0.115644 0.512500
-0.086713 -0.088103 0.631250
0.097232 0.069408 0.612750
-0.097159 0.182406 0.524250
0.067563 0.050991 0.649000
-0.110267 0.120871 0.617000
0.011388 0.119606 0.576500
-0.064048 0.131317 0.586250
0.140859 -0.200362 0.568000
0.191517 0.093509 0.541250
0.148929 0.051536 0.617000
-0.103525 0.092001 0.658500
-0.136196 0.032526 0.741500
-0.036712 -0.055991 0.671500
-0.141686 0.086402 0.674250
-0.046521 -0.088367 0.597750
0.109572 -0.147531 0.613750
0.032374 -0.047950 0.754500
0.057428 0.090655 0.599250
0.124477 -0.155983 0.588250
0.081447 0.102782 0.573000
-0.014543 0.120196 0.584000
0.117860 -0.028792 0.742750
0.025263 -0.036809 0.665750
0.150391 -0.024408 0.722000
-0.123721 0.062983 0.698750
-0.082138 -0.036229 0.636250
-0.000067 -0.013537 0.715000
0.111256 -0.156200 0.641000
0.133781 -0.053569 0.763500
0.223788 -0.198353 0.501250
-0.114575 0.034704 0.665750
-0.040432 0.055510 0.678000
0.018320 0.007513 0.694750
0.118749 0.006328 0.690750
0.100077 0.122661 0.535750
0.177363 -0.182531 0.583000
-0.110394 0.003150 0.749500
-0.144508 0.167194 0.563500
-0.017221 0.082031 0.648500
-0.144538 0.001826 0.716000
-0.022125 0.105784 0.606500
-0.030116 -0.026698 0.789750
0.129133 -0.113410 0.610250
0.174296 0.019942 0.650750
-0.012438 -0.099426 0.623750
-0.129621 0.114364 0.631750
-0.100453 -0.073053 0.645750
-0.028667 0.002908 0.691750
0.035197 -0.134632 0.687750
0.055080 -0.189033 0.565000
-0.105202 0.043134 0.714250
-0.033327 -0.009177 0.744750
0.241203 -0.175086 0.508250
0.158200 -0.150135 0.506250
0.089066 -0.213395 0.555500
-0.052576 0.020271 0.661500
0.067359 -0.031762 0.755000
-0.125502 0.031965 0.702250
-0.038942 0.133199 0.573500
0.191422 -0.080632 0.533500
-0.085565 -0.044686 0.608250
-0.147749 0.188710 0.534750
0.190182 -0.210719 0.532500
-0.221143 0.061684 0.738500
-0.021368 -0.168872 0.585750
0.196479 0.062131 0.582500
0.104261 0.054769 0.630750
-0.059100 0.070724 0.673500
0.038670 -0.147765 0.650500
-0.180240 0.040685 0.756500
0.055519 -0.107719 0.569500
-0.003372 -0.004912 0.667000
-0.105543 -0.012448 0.657500
0.203325 -0.113471 0.514500
0.227963 -0.154530 0.512500
0.030139 -0.070164 0.794250
-0.008976 -0.113346 0.599250
0.170885 -0.204626 0.594000
0.050409 -0.133969 0.535250
0.135682 -0.120100 0.646250
-0.086993 0.014723 0.710250
-0.127005 0.199199 0.511750
0.123318 -0.107463 0.578250
-0.126576 0.015018 0.671000
0.049641 -0.126129 0.613250
0.129946 -0.180152 0.591000
0.023909 0.096325 0.603750
0.228803 0.108944 0.505000
-0.010373 -0.058887 0.692500
-0.054254 -0.018193 0.712250
-0.194700 0.096164 0.680250
-0.150722 0.056353 0.717250
0.203731 -0.191327 0.511250
0.072354 0.007637 0.706250
0.153401 -0.084571 0.565750
-0.118354 -0.039898 0.662250
-0.007773 0.066635 0.666000
-0.161690 0.013621 0.781750
0.078153 0.122639 0.543500
0.065294 -0.113770 0.548750
-0.047319 -0.108973 0.608000
-0.167354 0.168624 0.571500
0.115851 -0.072996 0.796500
0.072583 -0.058682 0.798750
0.049806 -0.007848 0.735500
0.126712 -0.135987 0.539750
0.020822 0.078805 0.631250
0.223544 -0.114747 0.532250
0.039588 0.032311 0.685000
0.070372 -0.171189 0.567750
0.145270 0.119742 0.523000
0.069281 -0.145732 0.582250
0.163818 -0.105638 0.505500
-0.098472 0.060782 0.700000
-0.010416 -0.052265 0.781750
0.116537 0.094459 0.568500
-0.007752 -0.044410 0.664250
-0.073471 0.043027 0.693500
0.084519 0.147698 0.506250
-0.075154 0.098858 0.639500
-0.133358 -0.006159 0.683000
0.126196 0.136619 0.505500
0.060431 0.103168 0.580500
0.129032 -0.093215 0.561500
0.165169 -0.005074 0.689000
-0.017709 -0.068942 0.627750
0.028122 -0.134202 0.608500
0.159185 -0.082574 0.529000
-0.057062 -0.047945 0.638250
-0.108567 0.174331 0.542250
-0.094221 -0.007232 0.677750
-0.099253 -0.026282 0.624750
0.210219 0.083808 0.548000
0.103383 -0.175273 0.584500
0.068699 -0.100102 0.585500
0.135616 -0.219326 0.554250
-0.182814 0.146837 0.610500
-0.017971 -0.018467 0.773000
0.006301 -0.078871 0.641000
-0.073107 0.000630 0.701000
0.005779 0.021658 0.706750
0.026939 -0.158521 0.562750
-0.067995 0.157995 0.547750
-0.092448 0.076232 0.673000
-0.152013 0.103616 0.656250
0.041299 0.116016 0.568250
0.149182 -0.011017 0.705000
0.007686 -0.142554 0.585000
-0.076406 -0.076751 0.615500
-0.059969 0.119273 0.603750
-0.083333 -0.028261 0.699250
0.163096 0.139932 0.490750
0.102808 0.134927 0.518250
-0.191247 0.063126 0.727000
0.101601 -0.196176 0.558750
-0.011245 -0.057637 0.750750
-0.046176 -0.050055 0.697000
-0.103032 0.014339 0.691750
-0.113369 0.150848 0.575750
0.176033 -0.169271 0.535000
-0.133883 0.175778 0.546750
0.195452 -0.168290 0.503000
-0.041760 0.106250 0.615000
0.106567 -0.001705 0.708500
0.155424 0.012719 0.666750
-0.029197 0.037556 0.677500
-0.082058 0.115264 0.619750
0.049631 -0.133589 0.639250
0.157194 0.080967 0.572750
-0.003767 -0.200853 0.561500
0.205519 0.115678 0.505250
0.098750 0.091577 0.580000
0.117542 0.112604 0.542750
0.184148 0.034881 0.629250
0.007818 -0.019638 0.680750
0.129437 0.015107 0.675000
0.159038 -0.206992 0.576000
0.023164 -0.062037 0.702250
0.151813 -0.161359 0.556500
0.032553 -0.035560 0.730500
-0.078268 -0.035226 0.656750
-0.195432 0.122585 0.642000
0.078286 -0.018908 0.740250
0.124832 -0.130796 0.563500
0.071486 0.079079 0.609250
0.119102 0.030896 0.655000
0.192243 -0.074260 0.572750
-0.017227 0.005564 0.741000
0.054539 0.004203 0.717750
-0.063367 -0.040693 0.736000
0.057422 -0.036328 0.772500
0.144233 0.036620 0.641500
0.176143 -0.140719 0.502500
0.126301 -0.101761 0.538000
-0.058696 0.019765 0.681750
-0.104567 0.022003 0.718000
-0.086757 0.191399 0.509000
-0.051383 -0.053755 0.608500
-0.098114 -0.009365 0.760000
0.135175 -0.125366 0.511000
-0.041415 0.003957 0.675750
-0.216840 0.047979 0.753250
0.222663 0.091074 0.532250
-0.202416 0.025329 0.784250
0.190241 0.009283 0.657500
0.052870 0.073152 0.627500
0.017588 -0.071048 0.667000
0.032478 0.025019 0.702750
-0.085966 0.028460 0.731500
-0.074099 -0.031896 0.678250
-0.016141 0.150545 0.540500
0.087441 -0.002903 0.715000
0.020224 -0.041023 0.645500
-0.119862 -0.021864 0.646750
-0.222073 0.082056 0.714000
-0.005008 -0.032638 0.746500
-0.157371 0.000689 0.767000
0.014224 -0.183036 0.575500
0.079559 0.021076 0.687750
-0.119670 0.006921 0.640000
-0.094855 -0.022835 0.644000
0.004453 0.046873 0.682750
-0.162249 0.083343 0.685750
0.021424 0.139956 0.541000
-0.179737 0.050735 0.739000
0.096121 -0.161938 0.599500
0.110069 -0.040589 0.756750
0.122040 -0.201897 0.559250
-0.113939 0.104794 0.643500
0.084256 0.054280 0.637250
-0.231250 0.044084 0.772250
0.194615 -0.095502 0.518500
0.093895 -0.153150 0.624250
0.003323 0.011892 0.682500
-0.127614 -0.049701 0.676500
0.023654 0.064132 0.651750
-0.050580 -0.044258 0.678750
0.123200 0.149511 0.490250
0.132922 -0.024712 0.731000
-0.135726 0.019500 0.713250
0.059443 -0.207082 0.571000
0.139843 -0.150870 0.538750
0.197255 0.052055 0.599500
-0.032577 -0.065515 0.728000
-0.060481 0.184126 0.507500
0.031923 -0.128195 0.537000
0.093962 0.156723 0.490000
0.007427 -0.120193 0.646750
-0.152616 0.129305 0.623250
0.129237 0.069568 0.596750
-0.003552 -0.029564 0.702750
0.028275 -0.047736 0.714000
-0.101006 0.157827 0.560000
0.051143 -0.142916 0.552750
-0.074373 -0.023681 0.736500
0.046425 0.124331 0.551000
-0.165654 0.030998 0.764250
0.178660 -0.076417 0.597000
0.019428 0.107599 0.589000
-0.050961 -0.032813 0.750500
0.154367 0.098841 0.546000
-0.123754 0.088880 0.667750
0.133858 0.082346 0.582500
-0.151164 0.010402 0.736750
0.158852 -0.036918 0.733500
0.183248 0.104259 0.527750
0.022955 -0.132178 0.632500
-0.035414 0.087288 0.647750
0.004297 -0.060371 0.658750
0.092592 -0.043703 0.767500
-0.131435 0.074168 0.684750
-0.199136 0.085708 0.695750
0.029446 0.158750 0.509500
-0.045589 -0.068697 0.598500
-0.184219 0.104172 0.666750
0.033082 -0.138493 0.668000
-0.082506 0.137188 0.586500
0.058247 0.033102 0.678000
0.020136 -0.128336 0.678500
-0.099947 -0.054635 0.642500
0.088835 -0.177119 0.571750
0.031197 -0.139015 0.590500
0.023568 -0.005262 0.714500
-0.156845 0.148383 0.592500
-0.076474 0.150432 0.563500
-0.112156 -0.000511 0.677750
0.093138 -0.056213 0.782750
-0.174894 0.013847 0.794750
-0.006842 0.167634 0.513500
0.093635 0.032540 0.666500
0.121058 -0.132571 0.610250
0.024665 -0.137622 0.553500
-0.006567 -0.027844 0.785250
-0.025673 0.066247 0.673250
0.099628 0.078443 0.596750
0.040846 -0.160237 0.549500
0.156179 0.025348 0.651500
-0.088927 -0.023409 0.767500
-0.063531 0.056104 0.685250
0.022935 0.170203 0.496250
0.009115 0.134224 0.554250
-0.132420 0.139702 0.597250
0.026548 0.003075 0.731500
0.078707 -0.118005 0.573750
0.085698 -0.139573 0.610000
-0.075280 -0.032242 0.797750
-0.014257 -0.079511 0.613250
0.170980 0.043537 0.619250
0.127711 0.101524 0.555750
0.215241 -0.092089 0.549250
-0.167876 0.072324 0.699750
-0.099163 0.028419 0.673250
0.058286 0.160524 0.496750
0.235599 -0.139604 0.520000
0.084625 0.111778 0.556500
-0.070823 0.026009 0.668500
-0.012719 -0.189276 0.589000
0.156326 0.059261 0.602250
-0.198148 0.039513 0.758000
-0.011808 -0.069851 0.645750
-0.064223 -0.033917 0.775750
-0.237641 0.027092 0.798000
0.127253 -0.141031 0.578750
-0.057827 0.081181 0.659000
-0.112279 0.190503 0.518000
0.143540 0.132246 0.504750
0.187865 -0.177344 0.546250
-0.087239 0.091994 0.650750
0.234974 0.117855 0.490000
-0.029851 -0.076865 0.600500
-0.085061 -0.004077 0.713750
0.210527 -0.156300 0.507250
-0.069099 -0.051446 0.605000
0.021038 -0.079969 0.750750
-0.185405 0.075650 0.709250
0.134153 -0.164966 0.575500
0.026493 -0.195583 0.573250
0.041263 -0.123338 0.567750
-0.068222 -0.034586 0.710500
0.047825 0.015807 0.706250
0.200534 0.126209 0.491000
0.156552 -0.079647 0.584500
-0.096791 0.014302 0.749750
-0.213724 0.071413 0.725750
0.132201 0.051151 0.624750
0.119863 -0.063729 0.779750
0.032055 -0.054516 0.777000
-0.030947 -0.105996 0.602500
0.027403 -0.041691 0.692000
0.048687 -0.145520 0.685500
-0.102488 0.007003 0.764500
0.008346 -0.050869 0.635250
0.132789 -0.002836 0.698500
-0.024833 -0.154939 0.599250
-0.021812 0.130960 0.572000
0.203777 -0.129986 0.509250
-0.062274 -0.083681 0.606750
-0.005946 0.006513 0.711000
0.035960 0.055127 0.660000
-0.130549 0.158304 0.571750
0.172011 -0.224026 0.568500
-0.220786 0.033137 0.785000
-0.045580 0.033881 0.671250
-0.154096 0.160173 0.578500
0.174589 0.097132 0.541500
0.074340 -0.207625 0.562250
-0.048933 0.098235 0.628750
-0.127116 -0.020199 0.662250
0.188983 -0.074877 0.549500
-0.153100 0.032997 0.752250
-0.001075 -0.109300 0.615500
0.182272 -0.103642 0.508000
-0.010702 -0.058396 0.714500
-0.021692 -0.071037 0.688250
0.038335 0.136064 0.539750
0.061373 -0.018978 0.743000
-0.007137 0.098572 0.611500
-0.164851 0.053533 0.727250
0.095918 0.020922 0.682750
-0.032008 0.155709 0.536750
-0.088355 -0.013845 0.731250
0.177965 0.079148 0.566500
-0.083716 0.172956 0.532500
0.040867 0.094290 0.603500
0.150572 -0.050327 0.752750
0.016433 0.151289 0.524500
0.060204 0.062902 0.639250
0.027295 -0.018745 0.689250
0.117523 -0.018531 0.725500
-0.021566 0.016445 0.684250
0.016290 0.090391 0.617750
-0.022511 0.005363 0.714250
0.029092 0.044306 0.678000
0.174933 -0.076455 0.529000
0.112826 0.070413 0.604000
-0.053883 0.171388 0.525000
0.017616 0.011241 0.712750
-0.102565 0.127827 0.601750
0.159076 -0.092215 0.514500
-0.047460 0.150806 0.551250
0.018432 -0.023323 0.657750
0.127086 -0.041674 0.753750
-0.138093 0.061411 0.707250
0.051819 0.054584 0.653500
-0.001293 -0.015233 0.740000
-0.081810 -0.060969 0.610250
-0.054565 0.194763 0.492000
0.047373 -0.174176 0.562250
-0.091023 -0.045917 0.625000
-0.084942 0.050587 0.703000
0.147125 -0.085332 0.597250
0.054568 -0.116560 0.600500
0.049326 0.144148 0.523750
0.183720 -0.155874 0.500500
0.001083 0.035042 0.694250
0.131783 -0.078334 0.797250
-0.170866 0.120673 0.637500
0.183038 0.060209 0.592000
0.054779 0.082740 0.614000
0.117674 -0.157967 0.603250
0.139316 0.059655 0.606250
0.150746 -0.153648 0.521000
-0.003992 -0.129258 0.595000
0.165199 -0.189158 0.594750
0.039087 -0.033392 0.763750
-0.119474 0.129892 0.606750
-0.140436 0.108962 0.643000
0.131640 -0.190188 0.577000
-0.008150 0.185874 0.490000
-0.047697 -0.032740 0.778250
0.021770 -0.051760 0.660000
0.176231 0.125075 0.502750
0.001894 -0.158196 0.589250
0.063609 0.042278 0.663750
-0.014716 0.088439 0.633000
-0.140408 0.045384 0.731500
0.054404 -0.047249 0.784250
0.036603 -0.049024 0.792000
-0.038345 0.166578 0.526250
-0.032395 0.181949 0.501500
-0.068114 0.005149 0.685750
-0.006145 0.157086 0.526500
-0.098869 0.138948 0.585750
-0.004587 0.141896 0.548500
-0.137648 0.194164 0.523250
0.079111 0.041768 0.655750
0.169255 0.115805 0.517000
0.065073 0.140154 0.525000
0.059740 -0.128950 0.547750
0.120069 -0.121327 0.542000
-0.023993 -0.008122 0.761250
0.109859 0.042166 0.645250
-0.096016 -0.004248 0.743750
0.224737 0.099909 0.518750
-0.102250 0.068686 0.686500
0.036569 0.075856 0.632750
-0.033003 -0.059533 0.686750
-0.071347 0.140138 0.574750
0.100188 -0.023769 0.739250
-0.075864 0.071890 0.674000
-0.107632 0.012732 0.730750
0.060902 -0.144726 0.567000
-0.117286 0.052172 0.708750
0.166202 -0.026840 0.723250
-0.067330 -0.007613 0.713500
0.207099 0.093357 0.535250
-0.028074 0.171877 0.513500
0.026620 0.114742 0.576000
0.195289 -0.178522 0.515750
-0.138546 -0.002833 0.697750
-0.179080 0.092860 0.680750
0.028431 -0.062474 0.749250
0.070113 0.094011 0.589250
-0.040441 -0.007442 0.697500
0.117650 -0.154052 0.659000
0.183868 0.086439 0.553250
0.007789 -0.002753 0.678250
0.125588 -0.111278 0.593500
0.139738 -0.096425 0.528250
0.185309 -0.211141 0.593000
0.006490 0.062786 0.660250
0.210013 0.073875 0.562000
-0.080063 0.030749 0.701000
0.036660 -0.023801 0.740250
-0.048735 -0.054532 0.654000
0.089873 0.062532 0.625000
0.146623 -0.139397 0.506750
-0.014776 0.036799 0.684250
-0.087076 -0.020840 0.683250
0.179348 -0.006152 0.682250
-0.001103 -0.109010 0.631500
0.228615 -0.183161 0.502750
0.245044 0.102774 0.507500
0.053092 -0.114371 0.584250
-0.146781 0.139170 0.603500
0.134781 -0.111086 0.519250
-0.048452 0.129158 0.585250
0.165923 -0.173902 0.576750
-0.029534 -0.063758 0.660000
0.043986 0.153606 0.512000
0.126179 -0.133432 0.522750
-0.115637 0.006039 0.659250
-0.112501 0.111876 0.629500
0.200878 0.029540 0.626250
-0.000875 0.175144 0.501000
-0.003383 -0.030366 0.669250
-0.099763 0.034257 0.726250
-0.078951 -0.036299 0.619500
0.041608 -0.190597 0.572500
0.211395 0.059792 0.578500
0.106795 -0.063101 0.788000
-0.069067 0.166695 0.535000
-0.092208 -0.018244 0.714250
0.179283 -0.079755 0.564750
0.209811 0.042482 0.604250
-0.037483 -0.013816 0.729750
0.085390 -0.011373 0.727750
-0.195551 0.032609 0.772500
0.063219 0.125122 0.546500
-0.106123 0.004172 0.712500
-0.163277 0.112167 0.649250
0.000916 0.114945 0.586750
-0.125672 0.146317 0.584250
0.212582 -0.203498 0.514250
0.019065 -0.150400 0.578000
0.144875 -0.113380 0.506500
-0.023560 0.187589 0.490250
0.079326 -0.038353 0.762000
0.204049 -0.085381 0.541250
-0.001218 0.010992 0.697000
0.040715 -0.000547 0.725250
-0.029031 0.125022 0.584000
0.169242 -0.127242 0.501750
-0.110094 -0.048997 0.652250
-0.041079 -0.031001 0.799750
-0.148526 0.177974 0.550750
0.008694 -0.121887 0.661750
0.153489 0.091073 0.559250
0.101761 -0.185054 0.570000
0.163249 0.067949 0.591250
-0.032359 -0.066066 0.630000
0.120136 -0.125293 0.576750
0.103312 -0.161467 0.612750
-0.167403 0.130838 0.620750
-0.008304 0.024155 0.711500
0.118975 -0.143174 0.599750
-0.002904 0.123938 0.574500
-0.032210 -0.016000 0.777250
0.184236 0.046080 0.612250
-0.011899 0.110987 0.596750
0.074263 -0.157756 0.591250
-0.020841 0.074901 0.661250
-0.095553 0.119317 0.614250
-0.002172 0.080766 0.638500
-0.005281 -0.079790 0.631500
-0.117826 0.092347 0.653250
-0.122120 -0.007908 0.641750
0.150845 0.042160 0.629250
-0.101155 -0.063492 0.657250
0.229401 -0.127670 0.527500
-0.093124 -0.074660 0.632250
0.073173 -0.158171 0.575000
-0.075554 0.032134 0.681250
-0.006481 -0.038980 0.647000
0.109441 0.061907 0.618750
0.019692 -0.170475 0.568500
0.025453 -0.021567 0.670750
-0.212536 0.084158 0.702000
-0.018832 -0.131776 0.597500
0.021446 -0.002779 0.684500
0.203748 -0.201381 0.535750
-0.156864 0.066110 0.707500
0.045070 -0.147388 0.699750
0.155984 -0.181533 0.586000
0.072107 -0.130225 0.581750
-0.208787 0.100402 0.678500
0.150021 0.110736 0.533750
0.070666 0.153400 0.503000
-0.204809 0.061183 0.732500
0.164839 -0.159139 0.519250
0.019378 -0.071372 0.691500
-0.005141 -0.020839 0.766250
0.007875 -0.116108 0.685750
-0.109541 -0.023621 0.636500
-0.046472 0.186000 0.501250
-0.055235 0.137408 0.575250
0.158082 -0.085697 0.543250
0.086209 0.076718 0.606500
-0.139494 0.122340 0.624500
0.195366 0.107987 0.520500
-0.141355 0.094714 0.662250
-0.025620 0.115480 0.594500
-0.019509 0.096712 0.619000
-0.073584 0.120310 0.609000
-0.067866 0.089843 0.650750
0.163685 -0.166745 0.550000
0.170394 -0.214049 0.582250
0.131915 0.033818 0.648750
-0.121124 0.029729 0.677750
-0.110448 -0.001560 0.648000
0.213627 -0.187398 0.500750
0.134660 0.128247 0.515500
0.141905 0.099329 0.553750
-0.124234 0.122582 0.620500
-0.042847 0.141799 0.562500
0.235757 0.084877 0.532000
-0.192099 0.115502 0.656000
-0.025802 -0.072292 0.648500
-0.083431 0.181699 0.519750
0.094786 0.100902 0.567750
0.133566 0.118175 0.531500
0.161291 0.005087 0.677500
0.120008 -0.048570 0.764250
0.215165 -0.119095 0.520500
0.118065 0.053365 0.626500
0.224626 0.073185 0.556750
0.109429 0.014147 0.682500
-0.007317 0.004278 0.730500
-0.017484 0.140762 0.554750
0.095071 0.116356 0.547750
-0.102416 -0.006975 0.773500
0.143186 -0.091835 0.558750
0.187211 0.069852 0.574750
-0.127661 0.035201 0.721000
0.175376 0.029086 0.639000
-0.099276 0.027966 0.689500
0.105340 0.034248 0.657000
0.122190 -0.132196 0.642750
-0.092613 0.016478 0.736250
0.001049 0.057261 0.672250
0.117732 -0.178907 0.583750
0.188432 -0.133709 0.504250
-0.044652 0.069663 0.674000
0.190722 0.123107 0.501500
-0.171244 0.105179 0.659250
-0.075276 -0.090041 0.623000
-0.062825 0.097776 0.632500
-0.013129 -0.102944 0.608000
0.145683 -0.211894 0.561250
-0.068862 -0.039616 0.640000
-0.251369 0.029636 0.795500
-0.032516 -0.089889 0.594750
0.182408 -0.181805 0.565750
0.146069 -0.159621 0.570000
0.119905 -0.004023 0.704250
0.038520 -0.139661 0.530000
0.004292 -0.108148 0.658000
0.017101 -0.125512 0.610250
-0.171308 0.147777 0.602000
0.073061 0.144013 0.514000
-0.013198 -0.059608 0.793500
0.016760 0.125567 0.564750
0.179271 -0.188492 0.595750
-0.105215 0.082443 0.669250
-0.063201 -0.034816 0.669750
0.054625 0.110721 0.570000
-0.128063 0.022317 0.691000
0.143927 -0.060426 0.770500
-0.091074 0.086056 0.663000
-0.118662 0.037081 0.689500
0.069464 0.108456 0.568000
0.040602 -0.149847 0.664500
-0.046215 -0.057078 0.634250
-0.161372 -0.000593 0.786500
0.166661 -0.083712 0.560000
-0.041072 -0.022914 0.751250
0.018430 -0.133624 0.588250
-0.101436 0.023917 0.704500
-0.054335 -0.096876 0.607750
-0.206094 0.020511 0.798500
0.228482 -0.168284 0.508000
0.023599 -0.152203 0.550000
-0.101599 0.098834 0.646250
0.116455 -0.141841 0.629000
0.070737 0.132215 0.535000
-0.090051 -0.035813 0.647750
0.168614 0.013728 0.662250
0.007998 0.097122 0.608750
-0.110445 0.181693 0.529750
-0.167862 0.036690 0.751500
0.143844 0.012867 0.674500
-0.112316 0.020593 0.672000
-0.155183 0.089811 0.674750
0.240415 -0.161698 0.513750
0.049847 -0.139257 0.656000
0.212303 -0.142679 0.509500
0.123625 -0.169510 0.598250
-0.009380 -0.049394 0.704000
-0.060787 -0.026035 0.734250
0.102662 -0.209345 0.554500
0.086733 -0.057111 0.795250
-0.009704 -0.049892 0.728250
0.200676 -0.181048 0.501500
-0.073891 0.107587 0.628750
0.116530 0.132250 0.514500
-0.072195 0.127912 0.597500
0.067718 -0.050095 0.788250
0.137971 -0.018378 0.719500
-0.013958 -0.069936 0.700000
-0.106640 -0.011599 0.671250
0.125509 0.024811 0.666000
0.050880 -0.120935 0.540250
0.066169 -0.098739 0.572000
0.086579 -0.152921 0.595250
0.019493 -0.146431 0.562750
-0.026985 0.005093 0.678250
-0.170053 0.019849 0.772750
0.030673 -0.039879 0.743500
0.131220 -0.119250 0.625000
-0.120649 0.171730 0.548250
0.141869 -0.177942 0.583750
0.043615 0.022446 0.695000
0.068283 -0.184691 0.566000
0.054203 -0.109760 0.556000
-0.073575 0.186240 0.511000
0.056857 -0.220310 0.573500
0.215992 0.108390 0.510250
-0.098527 -0.006468 0.717250
0.119971 -0.150428 0.672000
-0.053629 0.051899 0.674750
-0.087647 0.156201 0.557500
-0.091559 -0.015572 0.700250
0.063390 0.073155 0.618750
-0.142088 0.020238 0.740250
-0.006546 0.075103 0.653500
0.087426 0.127615 0.534250
-0.002343 -0.024431 0.689000
0.032792 -0.140256 0.640750
-0.000061 -0.071660 0.652500
0.018551 0.025046 0.703500
0.028186 -0.018180 0.711750
0.050773 0.099174 0.591000
-0.154177 0.197980 0.526500
-0.039552 0.024709 0.663250
0.162025 0.051160 0.612500
0.118397 -0.145506 0.645250
0.106795 -0.155959 0.627250
0.171342 -0.153254 0.505500
-0.047444 -0.048948 0.666250
-0.146371 0.081076 0.685750
-0.132035 0.008502 0.682000
0.003143 -0.058090 0.645500
-0.178266 0.058401 0.728000
0.036549 -0.007874 0.738000
0.077392 -0.142483 0.592750
0.003931 -0.115004 0.602750
-0.047105 0.115568 0.605250
0.122229 -0.099803 0.551750
0.096764 0.142612 0.509000
-0.099413 0.190546 0.513500
0.197236 0.085370 0.552250
-0.024514 -0.067138 0.672000
-0.189446 0.020145 0.784250
0.114519 -0.011162 0.714250
0.092684 -0.153560 0.609500
-0.028252 0.051311 0.681750
-0.029929 0.138572 0.564500
-0.156717 0.171862 0.560500
-0.233582 0.035902 0.788750
-0.026821 -0.001770 0.735250
0.144795 -0.195969 0.580000
-0.188088 0.140183 0.621250
0.022746 -0.070134 0.726000
-0.088585 0.017383 0.723250
-0.064326 -0.023134 0.719500
0.105990 0.005233 0.697000
-0.034091 0.111567 0.605250
0.132206 -0.058331 0.776500
0.237052 -0.194211 0.501250
